ply
format ascii 1.0
element vertex 1129
property float32 x
property float32 y
property float32 z
element face 0
property list uint8 int32 vertex_indices
end_header
-357.82051805448236 -661 659.1391938424098
-357.82051805448236 -689 659.1391938424098
-357.0088372200077 -699 657.6440010742537
-357.0088372200077 -731 657.6440010742537
-357.82051805448236 -745 659.1391938424098
-356.19715638553305 -749 656.1488083060974
-356.19715638553305 -782 656.1488083060974
-357.82051805448236 -805 659.1391938424098
-356.19715638553305 -833 656.1488083060974
-357.82051805448236 -849 659.1391938424098
-16.102886740657684 -928 29.663038448668903
-15.291205906183038 -928 28.167845680512745
-15.291205906183038 -941 28.167845680512745
-15.291205906183038 -945 28.167845680512745
-368.1296830954994 -175 653.4374770580635
-368.1296830954994 -184 653.4374770580635
-368.1296830954994 -280 653.4374770580635
-367.29461692882325 -312 651.9552180765515
-368.1296830954994 -326 653.4374770580635
-366.45955076214705 -417 650.4729590950396
-366.45955076214705 -574 650.4729590950396
-367.29461692882325 -586 651.9552180765515
-367.29461692882325 -589 651.9552180765515
-367.29461692882325 -599 651.9552180765515
-367.29461692882325 -646 651.9552180765515
-367.29461692882325 -659 651.9552180765515
-13.226562258123641 -925 23.477409915509682
-18.23695925818073 -926 32.37096380458106
-13.226562258123641 -927 23.477409915509682
-15.731760758152184 -928 27.92418686004537
-14.061628424799823 -928 24.95966889702158
-14.896694591476003 -929 26.441927878533477
-15.731760758152184 -930 27.92418686004537
-15.731760758152184 -931 27.92418686004537
-14.896694591476003 -931 26.441927878533477
-16.566826924828366 -932 29.406445841557268
-14.896694591476003 -932 26.441927878533477
-14.061628424799823 -933 24.95966889702158
-14.896694591476003 -934 26.441927878533477
-14.061628424799823 -934 24.95966889702158
-14.896694591476003 -935 26.441927878533477
-14.061628424799823 -935 24.95966889702158
-14.896694591476003 -936 26.441927878533477
-14.061628424799823 -936 24.95966889702158
-15.731760758152184 -941 27.92418686004537
-14.896694591476003 -941 26.441927878533477
-14.896694591476003 -942 26.441927878533477
-15.731760758152184 -943 27.92418686004537
-14.896694591476003 -944 26.441927878533477
-15.731760758152184 -945 27.92418686004537
-15.731760758152184 -946 27.92418686004537
-16.566826924828366 -947 29.406445841557268
-14.896694591476003 -947 26.441927878533477
-14.061628424799823 -947 24.95966889702158
-377.48977218685883 -56 646.1055748842044
-378.34801764565526 -184 647.5745343538479
-377.48977218685883 -211 646.1055748842044
-377.48977218685883 -247 646.1055748842044
-377.48977218685883 -253 646.1055748842044
-378.34801764565526 -337 647.5745343538479
-378.34801764565526 -415 647.5745343538479
-377.48977218685883 -450 646.1055748842044
-377.48977218685883 -495 646.1055748842044
-377.48977218685883 -666 646.1055748842044
-378.34801764565526 -689 647.5745343538479
-378.34801764565526 -745 647.5745343538479
-377.48977218685883 -817 646.1055748842044
-12.735452198367835 -926 21.797800285735008
-17.026679492350098 -927 29.142597633952324
-13.593697657164286 -927 23.26675975537847
-16.168434033553645 -928 27.67363816430886
-15.310188574757191 -929 26.204678694665397
-14.45194311596074 -929 24.735719225021935
-15.310188574757191 -930 26.204678694665397
-14.45194311596074 -930 24.735719225021935
-15.310188574757191 -931 26.204678694665397
-14.45194311596074 -931 24.735719225021935
-15.310188574757191 -932 26.204678694665397
-14.45194311596074 -933 24.735719225021935
-15.310188574757191 -934 26.204678694665397
-14.45194311596074 -934 24.735719225021935
-16.168434033553645 -935 27.67363816430886
-13.593697657164286 -935 23.26675975537847
-15.310188574757191 -938 26.204678694665397
-14.45194311596074 -938 24.735719225021935
-15.310188574757191 -940 26.204678694665397
-14.45194311596074 -940 24.735719225021935
-14.45194311596074 -941 24.735719225021935
-15.310188574757191 -942 26.204678694665397
-14.45194311596074 -942 24.735719225021935
-16.168434033553645 -943 27.67363816430886
-14.45194311596074 -943 24.735719225021935
-15.310188574757191 -944 26.204678694665397
-12.735452198367835 -945 21.797800285735008
-16.168434033553645 -946 27.67363816430886
-17.026679492350098 -947 29.142597633952324
-14.45194311596074 -947 24.735719225021935
-388.47300048380066 -199 641.5518123231459
-388.47300048380066 -274 641.5518123231459
-388.47300048380066 -326 641.5518123231459
-387.59178749210866 -450 640.0965148091395
-388.47300048380066 -553 641.5518123231459
-387.59178749210866 -589 640.0965148091395
-387.59178749210866 -687 640.0965148091395
-388.47300048380066 -751 641.5518123231459
-17.482330981482793 -926 28.871558926451232
-13.957479014714915 -926 23.050368870425608
-13.076266023022944 -927 21.5950713564192
-15.719904998098853 -928 25.96096389843842
-13.957479014714915 -928 23.050368870425608
-15.719904998098853 -929 25.96096389843842
-14.838692006406884 -929 24.505666384432015
-13.957479014714915 -930 23.050368870425608
-14.838692006406884 -931 24.505666384432015
-15.719904998098853 -932 25.96096389843842
-15.719904998098853 -933 25.96096389843842
-14.838692006406884 -933 24.505666384432015
-14.838692006406884 -934 24.505666384432015
-14.838692006406884 -935 24.505666384432015
-15.719904998098853 -939 25.96096389843842
-15.719904998098853 -940 25.96096389843842
-14.838692006406884 -940 24.505666384432015
-14.838692006406884 -941 24.505666384432015
-15.719904998098853 -942 25.96096389843842
-15.719904998098853 -943 25.96096389843842
-16.601117989790822 -944 27.416261412444825
-15.719904998098853 -944 25.96096389843842
-14.838692006406884 -944 24.505666384432015
-16.601117989790822 -945 27.416261412444825
-13.076266023022944 -945 21.5950713564192
-16.601117989790822 -946 27.416261412444825
-397.5981703234546 -79 633.9295204970155
-398.5021334219223 -175 635.3707969824993
-398.5021334219223 -199 635.3707969824993
-397.5981703234546 -247 633.9295204970155
-398.5021334219223 -250 635.3707969824993
-398.5021334219223 -280 635.3707969824993
-397.5981703234546 -298 633.9295204970155
-398.5021334219223 -326 635.3707969824993
-398.5021334219223 -413 635.3707969824993
-397.5981703234546 -466 633.9295204970155
-398.5021334219223 -467 635.3707969824993
-397.5981703234546 -524 633.9295204970155
-396.69420722498694 -630 632.4882440115316
-398.5021334219223 -728 635.3707969824993
-398.5021334219223 -745 635.3707969824993
-398.5021334219223 -751 635.3707969824993
-397.5981703234546 -763 633.9295204970155
-17.933668967039512 -926 28.59339659379946
-14.31781657316888 -926 22.828290651864048
-14.31781657316888 -927 22.828290651864048
-17.029705868571856 -928 27.152120108315607
-16.125742770104196 -928 25.710843622831757
-15.221779671636538 -928 24.269567137347902
-16.125742770104196 -929 25.710843622831757
-16.125742770104196 -931 25.710843622831757
-15.221779671636538 -932 24.269567137347902
-16.125742770104196 -933 25.710843622831757
-15.221779671636538 -933 24.269567137347902
-15.221779671636538 -934 24.269567137347902
-13.413853474701222 -935 21.387014166380197
-16.125742770104196 -936 25.710843622831757
-15.221779671636538 -939 24.269567137347902
-17.029705868571856 -940 27.152120108315607
-15.221779671636538 -940 24.269567137347902
-16.125742770104196 -941 25.710843622831757
-17.029705868571856 -942 27.152120108315607
-16.125742770104196 -943 25.710843622831757
-18.837632065507172 -944 30.034673079283316
-17.029705868571856 -944 27.152120108315607
-15.221779671636538 -944 24.269567137347902
-14.31781657316888 -944 22.828290651864048
-408.4329419215376 -199 629.0330134049547
-407.50645175566245 -247 627.6061135613999
-408.4329419215376 -409 629.0330134049547
-407.50645175566245 -589 627.6061135613999
-408.4329419215376 -591 629.0330134049547
-408.4329419215376 -593 629.0330134049547
-408.4329419215376 -622 629.0330134049547
-408.4329419215376 -649 629.0330134049547
-407.50645175566245 -669 627.6061135613999
-407.50645175566245 -699 627.6061135613999
-407.50645175566245 -723 627.6061135613999
-408.4329419215376 -728 629.0330134049547
-406.5799615897874 -745 626.1792137178451
-15.601111590500597 -927 24.02747973772598
-18.38058208812587 -928 28.30817926839035
-16.527601756375688 -928 25.454379581280772
-18.38058208812587 -929 28.30817926839035
-16.527601756375688 -929 25.454379581280772
-15.601111590500597 -929 24.02747973772598
-14.674621424625506 -929 22.60057989417119
-18.38058208812587 -930 28.30817926839035
-15.601111590500597 -930 24.02747973772598
-18.38058208812587 -931 28.30817926839035
-418.26297570424697 -199 622.5400253437754
-418.26297570424697 -245 622.5400253437754
-417.31418706854953 -279 621.127854208335
-416.36539843285203 -630 619.7156830728944
-418.26297570424697 -689 622.5400253437754
-418.26297570424697 -745 622.5400253437754
-416.36539843285203 -749 619.7156830728944
-417.31418706854953 -853 621.127854208335
-417.31418706854953 -886 621.127854208335
-427.9898093563046 -199 615.8934348466089
-427.9898093563046 -245 615.8934348466089
-427.0189563501836 -279 614.4963408513796
-426.0481033440626 -630 613.0992468561503
-427.9898093563046 -689 615.8934348466089
-427.9898093563046 -745 615.8934348466089
-426.0481033440626 -749 613.0992468561503
-427.0189563501836 -853 614.4963408513796
-427.0189563501836 -886 614.4963408513796
-436.61836509396005 -79 607.7132097172253
-437.61104292705255 -199 609.0948818602052
-436.61836509396005 -297 607.7132097172253
-436.61836509396005 -415 607.7132097172253
-437.61104292705255 -417 609.0948818602052
-436.61836509396005 -594 607.7132097172253
-437.61104292705255 -600 609.0948818602052
-436.61836509396005 -602 607.7132097172253
-435.6256872608676 -630 606.3315375742453
-437.61104292705255 -688 609.0948818602052
-436.61836509396005 -763 607.7132097172253
-436.61836509396005 -796 607.7132097172253
-437.61104292705255 -825 609.0948818602052
-435.6256872608676 -833 606.3315375742453
-437.61104292705255 -930 609.0948818602052
-447.1243025210729 -175 602.146043825785
-447.1243025210729 -185 602.146043825785
-447.1243025210729 -280 602.146043825785
-447.1243025210729 -418 602.146043825785
-446.1100447894105 -450 600.7801344419813
-447.1243025210729 -553 602.146043825785
-445.0957870577481 -630 599.4142250581776
-447.1243025210729 -640 602.146043825785
-446.1100447894105 -645 600.7801344419813
-445.0957870577481 -662 599.4142250581776
-446.1100447894105 -671 600.7801344419813
-447.1243025210729 -893 602.146043825785
-447.1243025210729 -919 602.146043825785
-446.1100447894105 -922 600.7801344419813
-456.5272408839106 -175 595.0486352651553
-456.5272408839106 -185 595.0486352651553
-456.5272408839106 -280 595.0486352651553
-456.5272408839106 -418 595.0486352651553
-455.49165350659695 -450 593.6988256582298
-456.5272408839106 -553 595.0486352651553
-454.4560661292833 -630 592.3490160513043
-456.5272408839106 -640 595.0486352651553
-455.49165350659695 -645 593.6988256582298
-454.4560661292833 -662 592.3490160513043
-455.49165350659695 -671 593.6988256582298
-456.5272408839106 -893 595.0486352651553
-456.5272408839106 -919 595.0486352651553
-455.49165350659695 -922 593.6988256582298
-465.817537981224 -199 587.804407357678
-465.817537981224 -245 587.804407357678
-464.7608764739486 -349 586.4710305729534
-465.817537981224 -413 587.804407357678
-465.817537981224 -661 587.804407357678
-464.7608764739486 -670 586.4710305729534
-464.7608764739486 -715 586.4710305729534
-465.817537981224 -745 587.804407357678
-465.817537981224 -816 587.804407357678
-463.70421496667313 -833 585.1376537882288
-465.817537981224 -849 587.804407357678
-465.817537981224 -893 587.804407357678
-465.817537981224 -896 587.804407357678
-465.817537981224 -935 587.804407357678
-474.99290157121794 -272 580.4151475081911
-473.9154266493965 -294 579.0985325364375
-474.99290157121794 -303 580.4151475081911
-473.9154266493965 -312 579.0985325364375
-473.9154266493965 -349 579.0985325364375
-473.9154266493965 -415 579.0985325364375
-474.99290157121794 -417 580.4151475081911
-474.99290157121794 -457 580.4151475081911
-472.8379517275751 -662 577.7819175646838
-474.99290157121794 -689 580.4151475081911
-473.9154266493965 -699 579.0985325364375
-474.99290157121794 -745 580.4151475081911
-473.9154266493965 -763 579.0985325364375
-472.8379517275751 -782 577.7819175646838
-472.8379517275751 -833 577.7819175646838
-474.99290157121794 -849 580.4151475081911
-472.8379517275751 -904 577.7819175646838
-473.9154266493965 -919 579.0985325364375
-484.05106777022115 -273 572.8826789059945
-484.05106777022115 -303 572.8826789059945
-484.05106777022115 -326 572.8826789059945
-484.05106777022115 -553 572.8826789059945
-484.05106777022115 -656 572.8826789059945
-482.95304528466806 -723 571.5831506022552
-484.05106777022115 -745 572.8826789059945
-482.95304528466806 -763 571.5831506022552
-481.855022799115 -782 570.2836222985158
-481.855022799115 -833 570.2836222985158
-491.87150248259655 -79 563.9267390784444
-492.9898016112631 -199 565.2088600750058
-492.9898016112631 -302 565.2088600750058
-491.87150248259655 -306 563.9267390784444
-492.9898016112631 -326 565.2088600750058
-492.9898016112631 -376 565.2088600750058
-492.9898016112631 -441 565.2088600750058
-491.87150248259655 -450 563.9267390784444
-492.9898016112631 -494 565.2088600750058
-492.9898016112631 -553 565.2088600750058
-491.87150248259655 -577 563.9267390784444
-491.87150248259655 -594 563.9267390784444
-492.9898016112631 -674 565.2088600750058
-491.87150248259655 -715 563.9267390784444
-491.87150248259655 -723 563.9267390784444
-492.9898016112631 -750 565.2088600750058
-491.87150248259655 -782 563.9267390784444
-492.9898016112631 -809 565.2088600750058
-490.7532033539301 -830 562.6446180818829
-491.87150248259655 -885 563.9267390784444
-500.6685977473188 -79 556.131187069983
-501.8068975955222 -199 557.3955844151953
-501.8068975955222 -302 557.3955844151953
-500.6685977473188 -306 556.131187069983
-501.8068975955222 -326 557.3955844151953
-501.8068975955222 -376 557.3955844151953
-501.8068975955222 -441 557.3955844151953
-500.6685977473188 -450 556.131187069983
-501.8068975955222 -494 557.3955844151953
-501.8068975955222 -553 557.3955844151953
-500.6685977473188 -577 556.131187069983
-500.6685977473188 -594 556.131187069983
-501.8068975955222 -674 557.3955844151953
-500.6685977473188 -715 556.131187069983
-500.6685977473188 -723 556.131187069983
-501.8068975955222 -750 557.3955844151953
-500.6685977473188 -782 556.131187069983
-501.8068975955222 -809 557.3955844151953
-499.53029789911545 -830 554.8667897247706
-500.6685977473188 -885 556.131187069983
-510.5001802364974 -175 549.4447797354196
-510.5001802364974 -199 549.4447797354196
-509.34216052721195 -211 548.1984180126816
-509.34216052721195 -253 548.1984180126816
-510.5001802364974 -280 549.4447797354196
-510.5001802364974 -337 549.4447797354196
-510.5001802364974 -413 549.4447797354196
-509.34216052721195 -450 548.1984180126816
-510.5001802364974 -494 549.4447797354196
-510.5001802364974 -592 549.4447797354196
-509.34216052721195 -594 548.1984180126816
-509.34216052721195 -638 548.1984180126816
-509.34216052721195 -645 548.1984180126816
-510.5001802364974 -751 549.4447797354196
-509.34216052721195 -763 548.1984180126816
-509.34216052721195 -796 548.1984180126816
-509.34216052721195 -806 548.1984180126816
-508.1841408179265 -807 546.9520562899436
-510.5001802364974 -849 549.4447797354196
-510.5001802364974 -865 549.4447797354196
-508.1841408179265 -935 546.9520562899436
-509.34216052721195 -937 548.1984180126816
-519.0675045967773 -184 541.3584077777629
-517.8900507504453 -253 540.1303891986046
-519.0675045967773 -280 541.3584077777629
-517.8900507504453 -294 540.1303891986046
-519.0675045967773 -338 541.3584077777629
-516.7125969041132 -359 538.9023706194464
-517.8900507504453 -450 540.1303891986046
-517.8900507504453 -589 540.1303891986046
-519.0675045967773 -591 541.3584077777629
-519.0675045967773 -593 541.3584077777629
-516.7125969041132 -622 538.9023706194464
-516.7125969041132 -630 538.9023706194464
-519.0675045967773 -689 541.3584077777629
-517.8900507504453 -723 540.1303891986046
-519.0675045967773 -858 541.3584077777629
-527.5067568172719 -199 533.1384637335067
-526.3101593530112 -211 531.9290912931374
-527.5067568172719 -273 533.1384637335067
-527.5067568172719 -280 533.1384637335067
-526.3101593530112 -304 531.9290912931374
-527.5067568172719 -326 533.1384637335067
-527.5067568172719 -415 533.1384637335067
-527.5067568172719 -441 533.1384637335067
-526.3101593530112 -671 531.9290912931374
-525.1135618887504 -673 530.7197188527681
-527.5067568172719 -745 533.1384637335067
-525.1135618887504 -782 530.7197188527681
-534.6004087991047 -79 523.5965478438194
-534.6004087991047 -126 523.5965478438194
-535.8158546387749 -199 524.7869757508462
-534.6004087991047 -211 523.5965478438194
-535.8158546387749 -326 524.7869757508462
-535.8158546387749 -334 524.7869757508462
-535.8158546387749 -406 524.7869757508462
-534.6004087991047 -453 523.5965478438194
-535.8158546387749 -494 524.7869757508462
-535.8158546387749 -553 524.7869757508462
-534.6004087991047 -589 523.5965478438194
-535.8158546387749 -606 524.7869757508462
-534.6004087991047 -639 523.5965478438194
-535.8158546387749 -656 524.7869757508462
-535.8158546387749 -689 524.7869757508462
-533.3849629594346 -802 522.4061199367925
-535.8158546387749 -825 524.7869757508462
-533.3849629594346 -833 522.4061199367925
-534.6004087991047 -854 523.5965478438194
-535.8158546387749 -939 524.7869757508462
-542.7587535937246 -23 515.1348147810643
-542.7587535937246 -131 515.1348147810643
-543.9927479157303 -175 516.3060044344754
-543.9927479157303 -257 516.3060044344754
-542.7587535937246 -297 515.1348147810643
-543.9927479157303 -326 516.3060044344754
-542.7587535937246 -450 515.1348147810643
-541.5247592717188 -630 513.963625127653
-542.7587535937246 -723 515.1348147810643
-543.9927479157303 -745 516.3060044344754
-542.7587535937246 -763 515.1348147810643
-542.7587535937246 -857 515.1348147810643
-542.7587535937246 -921 515.1348147810643
-550.7831807873689 -56 506.5459799108896
-550.7831807873689 -79 506.5459799108896
-552.035419122076 -174 507.6976423371631
-552.035419122076 -199 507.6976423371631
-552.035419122076 -326 507.6976423371631
-550.7831807873689 -381 506.5459799108896
-549.5309424526617 -407 505.39431748461624
-552.035419122076 -413 507.6976423371631
-552.035419122076 -446 507.6976423371631
-552.035419122076 -577 507.6976423371631
-552.035419122076 -599 507.6976423371631
-549.5309424526617 -630 505.39431748461624
-550.7831807873689 -677 506.5459799108896
-552.035419122076 -679 507.6976423371631
-550.7831807873689 -687 506.5459799108896
-549.5309424526617 -743 505.39431748461624
-549.5309424526617 -782 505.39431748461624
-549.5309424526617 -833 505.39431748461624
-559.9418838490363 -199 498.96401344344685
-558.6717104726995 -247 497.83216239978213
-559.9418838490363 -334 498.96401344344685
-558.6717104726995 -349 497.83216239978213
-559.9418838490363 -465 498.96401344344685
-559.9418838490363 -577 498.96401344344685
-557.4015370963625 -630 496.7003113561175
-559.9418838490363 -649 498.96401344344685
-558.6717104726995 -715 497.83216239978213
-558.6717104726995 -763 497.83216239978213
-557.4015370963625 -830 496.7003113561175
-558.6717104726995 -853 497.83216239978213
-559.9418838490363 -879 498.96401344344685
-558.6717104726995 -941 497.83216239978213
-567.7101912947479 -175 490.10727264557175
-567.7101912947479 -185 490.10727264557175
-567.7101912947479 -199 490.10727264557175
-566.4223962730557 -211 488.9955122518246
-567.7101912947479 -280 490.10727264557175
-566.4223962730557 -293 488.9955122518246
-567.7101912947479 -334 490.10727264557175
-567.7101912947479 -441 490.10727264557175
-567.7101912947479 -553 490.10727264557175
-566.4223962730557 -573 488.9955122518246
-566.4223962730557 -605 488.9955122518246
-565.1346012513635 -654 487.8837518580775
-566.4223962730557 -687 488.9955122518246
-566.4223962730557 -715 488.9955122518246
-565.1346012513635 -749 487.8837518580775
-567.7101912947479 -761 490.10727264557175
-575.3384247455867 -199 481.12960521180435
-574.0333258226913 -211 480.0382097782163
-575.3384247455867 -273 481.12960521180435
-575.3384247455867 -280 481.12960521180435
-575.3384247455867 -326 481.12960521180435
-575.3384247455867 -418 481.12960521180435
-575.3384247455867 -441 481.12960521180435
-574.0333258226913 -450 480.0382097782163
-572.7282268997957 -534 478.94681434462825
-575.3384247455867 -553 481.12960521180435
-575.3384247455867 -622 481.12960521180435
-574.0333258226913 -672 480.0382097782163
-572.7282268997957 -718 478.94681434462825
-572.7282268997957 -785 478.94681434462825
-582.8247020490934 -175 472.03322624724785
-582.8247020490934 -199 472.03322624724785
-581.5026212386251 -253 470.9624650593112
-582.8247020490934 -350 472.03322624724785
-581.5026212386251 -352 470.9624650593112
-582.8247020490934 -553 472.03322624724785
-582.8247020490934 -606 472.03322624724785
-580.1805404281569 -613 469.89170387137455
-580.1805404281569 -630 469.89170387137455
-581.5026212386251 -666 470.9624650593112
-582.8247020490934 -674 472.03322624724785
-581.5026212386251 -723 470.9624650593112
-582.8247020490934 -728 472.03322624724785
-582.8247020490934 -745 472.03322624724785
-581.5026212386251 -763 470.9624650593112
-582.8247020490934 -937 472.03322624724785
-588.8284395839789 -23 461.77051739931534
-588.8284395839789 -145 461.77051739931534
-588.8284395839789 -211 461.77051739931534
-590.1671760783627 -272 462.8203801472996
-590.1671760783627 -306 462.8203801472996
-590.1671760783627 -338 462.8203801472996
-587.4897030895952 -417 460.7206546513311
-590.1671760783627 -606 462.8203801472996
-590.1671760783627 -640 462.8203801472996
-587.4897030895952 -673 460.7206546513311
-588.8284395839789 -686 461.77051739931534
-588.8284395839789 -699 461.77051739931534
-588.8284395839789 -715 461.77051739931534
-590.1671760783627 -745 462.8203801472996
-587.4897030895952 -830 460.7206546513311
-590.1671760783627 -849 462.8203801472996
-590.1671760783627 -853 462.8203801472996
-587.4897030895952 -880 460.7206546513311
-590.1671760783627 -944 462.8203801472996
-596.0089733226944 -23 452.46463477377176
-596.0089733226944 -145 452.46463477377176
-596.0089733226944 -211 452.46463477377176
-597.3640351877956 -272 453.49334004388
-597.3640351877956 -306 453.49334004388
-597.3640351877956 -338 453.49334004388
-594.6539114575933 -417 451.4359295036635
-597.3640351877956 -606 453.49334004388
-597.3640351877956 -640 453.49334004388
-594.6539114575933 -673 451.4359295036635
-596.0089733226944 -686 452.46463477377176
-596.0089733226944 -699 452.46463477377176
-596.0089733226944 -715 452.46463477377176
-597.3640351877956 -745 453.49334004388
-594.6539114575933 -830 451.4359295036635
-597.3640351877956 -849 453.49334004388
-597.3640351877956 -853 453.49334004388
-594.6539114575933 -880 451.4359295036635
-597.3640351877956 -944 453.49334004388
-603.0424507655162 -79 443.0471132699714
-604.4135036600958 -199 444.0544072445711
-603.0424507655162 -247 443.0471132699714
-604.4135036600958 -280 444.0544072445711
-601.6713978709365 -293 442.03981929537173
-604.4135036600958 -326 444.0544072445711
-604.4135036600958 -334 444.0544072445711
-603.0424507655162 -602 443.0471132699714
-601.6713978709365 -618 442.03981929537173
-603.0424507655162 -699 443.0471132699714
-603.0424507655162 -763 443.0471132699714
-601.6713978709365 -782 442.03981929537173
-604.4135036600958 -849 444.0544072445711
-604.4135036600958 -855 444.0544072445711
-603.0424507655162 -863 443.0471132699714
-603.0424507655162 -952 443.0471132699714
-611.3138421444013 -199 434.5059106648033
-609.9271365071295 -211 433.52027652042796
-611.3138421444013 -280 434.5059106648033
-611.3138421444013 -376 434.5059106648033
-611.3138421444013 -405 434.5059106648033
-611.3138421444013 -413 434.5059106648033
-608.5404308698577 -630 432.5346423760526
-608.5404308698577 -749 432.5346423760526
-609.9271365071295 -782 433.52027652042796
-611.3138421444013 -815 434.5059106648033
-608.5404308698577 -833 432.5346423760526
-611.3138421444013 -895 434.5059106648033
-618.0633480854431 -199 424.8502062532304
-616.6613318543453 -211 423.8864751295562
-618.0633480854431 -280 424.8502062532304
-618.0633480854431 -376 424.8502062532304
-618.0633480854431 -405 424.8502062532304
-618.0633480854431 -413 424.8502062532304
-615.2593156232476 -630 422.9227440058819
-615.2593156232476 -749 422.9227440058819
-616.6613318543453 -782 423.8864751295562
-618.0633480854431 -815 424.8502062532304
-615.2593156232476 -833 422.9227440058819
-618.0633480854431 -895 424.8502062532304
-623.2433752452276 -79 414.1480860936957
-624.6603561436251 -144 415.0896764104347
-624.6603561436251 -184 415.0896764104347
-624.6603561436251 -199 415.0896764104347
-624.6603561436251 -334 415.0896764104347
-621.8263943468302 -417 413.20649577695673
-624.6603561436251 -433 415.0896764104347
-623.2433752452276 -450 414.1480860936957
-624.6603561436251 -457 415.0896764104347
-623.2433752452276 -699 414.1480860936957
-624.6603561436251 -703 415.0896764104347
-623.2433752452276 -759 414.1480860936957
-621.8263943468302 -782 413.20649577695673
-624.6603561436251 -806 415.0896764104347
-629.671642659059 -79 404.3075122146225
-631.1032386059223 -144 405.22672940110493
-631.1032386059223 -184 405.22672940110493
-631.1032386059223 -199 405.22672940110493
-631.1032386059223 -334 405.22672940110493
-628.2400467121957 -417 403.3882950281401
-631.1032386059223 -433 405.22672940110493
-629.671642659059 -450 404.3075122146225
-631.1032386059223 -457 405.22672940110493
-629.671642659059 -699 404.3075122146225
-631.1032386059223 -703 405.22672940110493
-629.671642659059 -759 404.3075122146225
-628.2400467121957 -782 403.3882950281401
-631.1032386059223 -806 405.22672940110493
-635.9445480170438 -253 394.36718150669293
-635.9445480170438 -297 394.36718150669293
-637.3904057874943 -326 395.2637987598325
-637.3904057874943 -334 395.2637987598325
-635.9445480170438 -415 394.36718150669293
-637.3904057874943 -417 395.2637987598325
-637.3904057874943 -441 395.2637987598325
-635.9445480170438 -450 394.36718150669293
-635.9445480170438 -573 394.36718150669293
-635.9445480170438 -599 394.36718150669293
-634.4986902465931 -630 393.47056425355333
-635.9445480170438 -669 394.36718150669293
-637.3904057874943 -728 395.2637987598325
-637.3904057874943 -745 395.2637987598325
-634.4986902465931 -816 393.47056425355333
-634.4986902465931 -833 393.47056425355333
-634.4986902465931 -848 393.47056425355333
-642.0605435736474 -79 384.3295465977698
-643.5203064239151 -199 385.2033426906758
-642.0605435736474 -272 384.3295465977698
-642.0605435736474 -378 384.3295465977698
-643.5203064239151 -413 385.2033426906758
-642.0605435736474 -573 384.3295465977698
-643.5203064239151 -647 385.2033426906758
-642.0605435736474 -715 384.3295465977698
-642.0605435736474 -754 384.3295465977698
-642.0605435736474 -782 384.3295465977698
-642.0605435736474 -796 384.3295465977698
-643.5203064239151 -809 385.2033426906758
-640.6007807233794 -863 383.4557505048639
-643.5203064239151 -879 385.2033426906758
-640.6007807233794 -896 383.4557505048639
-649.4914280539272 -184 375.04784346063155
-649.4914280539272 -199 375.04784346063155
-649.4914280539272 -293 375.04784346063155
-648.0181202984824 -304 374.19708412407033
-649.4914280539272 -313 375.04784346063155
-649.4914280539272 -326 375.04784346063155
-649.4914280539272 -334 375.04784346063155
-648.0181202984824 -410 374.19708412407033
-649.4914280539272 -529 375.04784346063155
-646.5448125430376 -630 373.34632478750905
-646.5448125430376 -833 373.34632478750905
-648.0181202984824 -853 374.19708412407033
-655.3022973926156 -175 364.79980678717476
-653.8158082486369 -247 363.9722941190943
-655.3022973926156 -330 364.79980678717476
-655.3022973926156 -376 364.79980678717476
-653.8158082486369 -450 363.9722941190943
-655.3022973926156 -487 364.79980678717476
-653.8158082486369 -590 363.9722941190943
-653.8158082486369 -594 363.9722941190943
-653.8158082486369 -599 363.9722941190943
-652.3293191046583 -615 363.1447814510138
-653.8158082486369 -653 363.9722941190943
-655.3022973926156 -703 364.79980678717476
-653.8158082486369 -754 363.9722941190943
-653.8158082486369 -759 363.9722941190943
-652.3293191046583 -830 363.1447814510138
-655.3022973926156 -849 364.79980678717476
-653.8158082486369 -853 363.9722941190943
-653.8158082486369 -885 363.9722941190943
-660.9514806949211 -175 354.4617612200099
-660.9514806949211 -184 354.4617612200099
-659.4521769313621 -253 353.65769939677875
-660.9514806949211 -280 354.4617612200099
-660.9514806949211 -326 354.4617612200099
-660.9514806949211 -518 354.4617612200099
-659.4521769313621 -528 353.65769939677875
-660.9514806949211 -553 354.4617612200099
-660.9514806949211 -577 354.4617612200099
-659.4521769313621 -589 353.65769939677875
-660.9514806949211 -591 354.4617612200099
-660.9514806949211 -593 354.4617612200099
-657.9528731678031 -630 352.8536375735476
-659.4521769313621 -637 353.65769939677875
-654.9542656406852 -670 351.2455139270852
-651.9556581135672 -670 349.63739028062287
-650.4563543500083 -671 348.8333284573917
-647.4577468228904 -671 347.22520481092937
-654.9542656406852 -674 351.2455139270852
-657.9528731678031 -743 352.8536375735476
-657.9528731678031 -782 352.8536375735476
-659.4521769313621 -824 353.65769939677875
-660.9514806949211 -929 354.4617612200099
-659.4521769313621 -941 353.65769939677875
-666.4375841093945 -175 344.0362575171892
-666.4375841093945 -184 344.0362575171892
-664.9258356570242 -253 343.2558449290308
-666.4375841093945 -280 344.0362575171892
-666.4375841093945 -326 344.0362575171892
-666.4375841093945 -518 344.0362575171892
-664.9258356570242 -528 343.2558449290308
-666.4375841093945 -553 344.0362575171892
-666.4375841093945 -577 344.0362575171892
-664.9258356570242 -589 343.2558449290308
-666.4375841093945 -591 344.0362575171892
-666.4375841093945 -593 344.0362575171892
-663.414087204654 -630 342.4754323408724
-664.9258356570242 -637 343.2558449290308
-660.3905902999136 -670 340.9146071645555
-657.367093395173 -670 339.35378198823867
-655.8553449428028 -671 338.57336940008025
-652.8318480380624 -671 337.01254422376337
-660.3905902999136 -674 340.9146071645555
-663.414087204654 -743 342.4754323408724
-663.414087204654 -782 342.4754323408724
-664.9258356570242 -824 343.2558449290308
-666.4375841093945 -929 344.0362575171892
-664.9258356570242 -941 343.2558449290308
-671.7592540221086 -199 333.52586801575114
-671.7592540221086 -285 333.52586801575114
-670.2354338822369 -297 332.769297217794
-671.7592540221086 -313 333.52586801575114
-668.7116137423652 -749 332.01272641983695
-668.7116137423652 -782 332.01272641983695
-670.2354338822369 -853 332.769297217794
-675.3796615430871 -141 322.2006436618027
-676.915177390642 -237 322.9331859970349
-675.3796615430871 -240 322.2006436618027
-676.915177390642 -326 322.9331859970349
-676.915177390642 -344 322.9331859970349
-676.915177390642 -441 322.9331859970349
-676.915177390642 -553 322.9331859970349
-673.8441456955321 -630 321.4681013265705
-673.8441456955321 -654 321.4681013265705
-675.3796615430871 -673 322.2006436618027
-676.915177390642 -745 322.9331859970349
-673.8441456955321 -848 321.4681013265705
-676.915177390642 -855 322.9331859970349
-676.915177390642 -879 322.9331859970349
-680.3572493783744 -131 311.5524919181795
-681.9040820680538 -141 312.2608250468269
-680.3572493783744 -211 311.5524919181795
-680.3572493783744 -247 311.5524919181795
-680.3572493783744 -253 311.5524919181795
-681.9040820680538 -326 312.2608250468269
-681.9040820680538 -553 312.2608250468269
-680.3572493783744 -596 311.5524919181795
-681.9040820680538 -599 312.2608250468269
-680.3572493783744 -637 311.5524919181795
-681.9040820680538 -657 312.2608250468269
-681.9040820680538 -689 312.2608250468269
-681.9040820680538 -703 312.2608250468269
-680.3572493783744 -723 311.5524919181795
-681.9040820680538 -728 312.2608250468269
-678.8104166886951 -782 310.8441587895322
-680.3572493783744 -885 311.5524919181795
-685.1669692427816 -79 300.8274692590356
-686.7247371167649 -199 301.5114184104976
-685.1669692427816 -211 300.8274692590356
-685.1669692427816 -253 300.8274692590356
-685.1669692427816 -272 300.8274692590356
-686.7247371167649 -285 301.5114184104976
-686.7247371167649 -376 301.5114184104976
-685.1669692427816 -406 300.8274692590356
-686.7247371167649 -441 301.5114184104976
-685.1669692427816 -450 300.8274692590356
-685.1669692427816 -533 300.8274692590356
-686.7247371167649 -606 301.5114184104976
-683.6092013687984 -654 300.1435201075735
-683.6092013687984 -749 300.1435201075735
-683.6092013687984 -769 300.1435201075735
-686.7247371167649 -782 301.5114184104976
-691.3759531122755 -199 290.6876183432871
-689.8076344099019 -253 290.02822192322935
-689.8076344099019 -297 290.02822192322935
-691.3759531122755 -326 290.6876183432871
-691.3759531122755 -376 290.6876183432871
-689.8076344099019 -415 290.02822192322935
-691.3759531122755 -417 290.6876183432871
-691.3759531122755 -441 290.6876183432871
-691.3759531122755 -553 290.6876183432871
-689.8076344099019 -583 290.02822192322935
-691.3759531122755 -622 290.6876183432871
-688.2393157075282 -630 289.36882550317165
-688.2393157075282 -743 289.36882550317165
-691.3759531122755 -828 290.6876183432871
-689.8076344099019 -853 290.02822192322935
-694.2780998650445 -23 279.15741446344964
-695.856582436636 -199 279.79209545590317
-692.699617293453 -248 278.5227334709961
-695.856582436636 -273 279.79209545590317
-694.2780998650445 -310 279.15741446344964
-695.856582436636 -320 279.79209545590317
-694.2780998650445 -410 279.15741446344964
-695.856582436636 -441 279.79209545590317
-695.856582436636 -577 279.79209545590317
-694.2780998650445 -590 279.15741446344964
-694.2780998650445 -653 279.15741446344964
-695.856582436636 -689 279.79209545590317
-695.856582436636 -728 279.79209545590317
-694.2780998650445 -763 279.15741446344964
-695.856582436636 -831 279.79209545590317
-698.5772625877516 -79 268.21772908877307
-698.5772625877516 -211 268.21772908877307
-698.5772625877516 -271 268.21772908877307
-700.1655195616057 -334 268.8275380555845
-698.5772625877516 -450 268.21772908877307
-700.1655195616057 -606 268.8275380555845
-698.5772625877516 -670 268.21772908877307
-700.1655195616057 -881 268.8275380555845
-700.1655195616057 -934 268.8275380555845
-704.3017013214252 -326 257.79665148280344
-704.3017013214252 -350 257.79665148280344
-702.7040618239511 -352 257.211865002872
-704.3017013214252 -376 257.79665148280344
-704.3017013214252 -591 257.79665148280344
-702.7040618239511 -599 257.211865002872
-702.7040618239511 -615 257.211865002872
-702.7040618239511 -649 257.211865002872
-701.106422326477 -655 256.6270785229405
-701.106422326477 -662 256.6270785229405
-702.7040618239511 -677 257.211865002872
-704.3017013214252 -679 257.79665148280344
-704.3017013214252 -703 257.79665148280344
-701.106422326477 -710 256.6270785229405
-704.3017013214252 -752 257.79665148280344
-704.3017013214252 -760 257.79665148280344
-704.3017013214252 -825 257.79665148280344
-701.106422326477 -833 256.6270785229405
-701.106422326477 -855 256.6270785229405
-702.7040618239511 -861 257.211865002872
-704.3017013214252 -934 257.79665148280344
-702.7040618239511 -945 257.211865002872
-708.2641071751361 -326 246.70215744376307
-708.2641071751361 -354 246.70215744376307
-706.657479347682 -359 246.14253773802514
-706.657479347682 -414 246.14253773802514
-706.657479347682 -591 246.14253773802514
-705.0508515202281 -630 245.58291803228718
-705.0508515202281 -648 245.58291803228718
-705.0508515202281 -654 245.58291803228718
-708.2641071751361 -695 246.70215744376307
-706.657479347682 -698 246.14253773802514
-708.2641071751361 -703 246.70215744376307
-708.2641071751361 -745 246.70215744376307
-705.0508515202281 -782 245.58291803228718
-708.2641071751361 -825 246.70215744376307
-705.0508515202281 -830 245.58291803228718
-708.2641071751361 -934 246.70215744376307
-706.657479347682 -942 246.14253773802514
-712.051759458385 -145 235.54679333885707
-712.051759458385 -199 235.54679333885707
-712.051759458385 -280 235.54679333885707
-708.8213199662689 -293 234.47816363134547
-710.436539712327 -327 235.01247848510127
-712.051759458385 -441 235.54679333885707
-708.8213199662689 -630 234.47816363134547
-710.436539712327 -658 235.01247848510127
-708.8213199662689 -749 234.47816363134547
-710.436539712327 -921 235.01247848510127
-712.051759458385 -934 235.54679333885707
-715.6637236246467 -145 224.3333115872571
-715.6637236246467 -199 224.3333115872571
-715.6637236246467 -280 224.3333115872571
-712.4168973579291 -293 223.3155552520998
-714.0403104912879 -327 223.82443341967846
-715.6637236246467 -441 224.3333115872571
-712.4168973579291 -630 223.3155552520998
-714.0403104912879 -658 223.82443341967846
-712.4168973579291 -749 223.3155552520998
-714.0403104912879 -921 223.82443341967846
-715.6637236246467 -934 224.3333115872571
-717.4679025080496 -143 212.58116302446618
-717.4679025080496 -253 212.58116302446618
-719.0991084758101 -280 213.06447894779433
-715.8366965402892 -293 212.09784710113806
-719.0991084758101 -326 213.06447894779433
-719.0991084758101 -334 213.06447894779433
-717.4679025080496 -524 212.58116302446618
-717.4679025080496 -532 212.58116302446618
-719.0991084758101 -577 213.06447894779433
-719.0991084758101 -606 213.06447894779433
-715.8366965402892 -630 212.09784710113806
-715.8366965402892 -743 212.09784710113806
-719.0991084758101 -849 213.06447894779433
-717.4679025080496 -950 212.58116302446618
-722.3570663820681 -184 201.7430758363034
-722.3570663820681 -199 201.7430758363034
-722.3570663820681 -280 201.7430758363034
-722.3570663820681 -287 201.7430758363034
-720.7184700555703 -294 201.28544140819784
-722.3570663820681 -326 201.7430758363034
-722.3570663820681 -334 201.7430758363034
-720.7184700555703 -450 201.28544140819784
-719.0798737290723 -630 200.8278069800923
-720.7184700555703 -856 201.28544140819784
-720.7184700555703 -893 201.28544140819784
-722.3570663820681 -934 201.7430758363034
-720.7184700555703 -950 201.28544140819784
-720.7184700555703 -968 201.28544140819784
-725.4367934910571 -141 190.37189563959632
-725.4367934910571 -184 190.37189563959632
-722.1456287188358 -248 189.50821560272522
-723.7912111049465 -253 189.94005562116075
-722.1456287188358 -293 189.50821560272522
-725.4367934910571 -326 190.37189563959632
-725.4367934910571 -376 190.37189563959632
-723.7912111049465 -414 189.94005562116075
-723.7912111049465 -524 189.94005562116075
-725.4367934910571 -553 190.37189563959632
-722.1456287188358 -630 189.50821560272522
-723.7912111049465 -686 189.94005562116075
-725.4367934910571 -752 190.37189563959632
-725.4367934910571 -782 190.37189563959632
-725.4367934910571 -862 190.37189563959632
-725.4367934910571 -879 190.37189563959632
-723.7912111049465 -921 189.94005562116075
-725.4367934910571 -934 190.37189563959632
-726.6853675033033 -31 178.54780496753258
-728.3375299261961 -199 178.95374402623537
-728.3375299261961 -280 178.95374402623537
-728.3375299261961 -304 178.95374402623537
-728.3375299261961 -326 178.95374402623537
-728.3375299261961 -334 178.95374402623537
-728.3375299261961 -441 178.95374402623537
-725.0332050804103 -497 178.1418659088298
-728.3375299261961 -553 178.95374402623537
-725.0332050804103 -630 178.1418659088298
-726.6853675033033 -638 178.54780496753258
-728.3375299261961 -672 178.95374402623537
-728.3375299261961 -690 178.95374402623537
-728.3375299261961 -696 178.95374402623537
-726.6853675033033 -723 178.54780496753258
-725.0332050804103 -782 178.1418659088298
-725.0332050804103 -833 178.1418659088298
-725.0332050804103 -896 178.1418659088298
-726.6853675033033 -921 178.54780496753258
-725.0332050804103 -960 178.1418659088298
-731.058559974174 -199 167.4914382542789
-729.4002251608548 -211 167.11150031469745
-731.058559974174 -287 167.4914382542789
-729.4002251608548 -312 167.11150031469745
-731.058559974174 -376 167.4914382542789
-731.058559974174 -441 167.4914382542789
-731.058559974174 -446 167.4914382542789
-729.4002251608548 -453 167.11150031469745
-729.4002251608548 -535 167.11150031469745
-731.058559974174 -553 167.4914382542789
-727.7418903475356 -608 166.731562375116
-731.058559974174 -703 167.4914382542789
-727.7418903475356 -710 166.731562375116
-727.7418903475356 -743 166.731562375116
-729.4002251608548 -782 167.11150031469745
-729.4002251608548 -856 167.11150031469745
-731.9351142270979 -253 155.63396339970274
-733.5992122615424 -273 155.9878064761614
-733.5992122615424 -326 155.9878064761614
-731.9351142270979 -351 155.63396339970274
-733.5992122615424 -402 155.9878064761614
-733.5992122615424 -441 155.9878064761614
-731.9351142270979 -449 155.63396339970274
-731.9351142270979 -574 155.63396339970274
-730.2710161926533 -630 155.28012032324403
-731.9351142270979 -696 155.63396339970274
-733.5992122615424 -728 155.9878064761614
-733.5992122615424 -760 155.9878064761614
-733.5992122615424 -825 155.9878064761614
-733.5992122615424 -881 155.9878064761614
-733.5992122615424 -934 155.9878064761614
-733.5992122615424 -944 155.9878064761614
-734.2894092560856 -23 144.1180261330401
-734.2894092560856 -253 144.1180261330401
-735.958859920366 -334 144.44568704089158
-735.958859920366 -376 144.44568704089158
-735.958859920366 -407 144.44568704089158
-734.2894092560856 -433 144.1180261330401
-735.958859920366 -441 144.44568704089158
-732.6199585918054 -574 143.79036522518865
-732.6199585918054 -601 143.79036522518865
-735.958859920366 -606 144.44568704089158
-735.958859920366 -615 144.44568704089158
-732.6199585918054 -630 143.79036522518865
-734.2894092560856 -638 144.1180261330401
-732.6199585918054 -662 143.79036522518865
-735.958859920366 -725 144.44568704089158
-735.958859920366 -736 144.44568704089158
-735.958859920366 -742 144.44568704089158
-735.958859920366 -962 144.44568704089158
-732.6199585918054 -966 143.79036522518865
-735.958859920366 -981 144.44568704089158
-734.2894092560856 -982 144.1180261330401
-738.1369207428928 -199 132.8679277937316
-736.4625293607477 -247 132.56652989991346
-736.4625293607477 -327 132.56652989991346
-736.4625293607477 -410 132.56652989991346
-738.1369207428928 -418 132.8679277937316
-736.4625293607477 -490 132.56652989991346
-738.1369207428928 -494 132.8679277937316
-738.1369207428928 -560 132.8679277937316
-738.1369207428928 -671 132.8679277937316
-738.1369207428928 -696 132.8679277937316
-738.1369207428928 -703 132.8679277937316
-734.7881379786025 -729 132.26513200609534
-734.7881379786025 -743 132.26513200609534
-734.7881379786025 -782 132.26513200609534
-734.7881379786025 -833 132.26513200609534
-738.1369207428928 -847 132.8679277937316
-738.1369207428928 -879 132.8679277937316
-736.4625293607477 -992 132.56652989991346
-738.4539383562154 -297 120.98232485916961
-738.4539383562154 -306 120.98232485916961
-740.1328573252063 -326 121.257385373534
-738.4539383562154 -421 120.98232485916961
-738.4539383562154 -433 120.98232485916961
-738.4539383562154 -450 120.98232485916961
-740.1328573252063 -518 121.257385373534
-738.4539383562154 -527 120.98232485916961
-738.4539383562154 -596 120.98232485916961
-740.1328573252063 -599 121.257385373534
-736.7750193872245 -630 120.7072643448052
-740.1328573252063 -703 121.257385373534
-738.4539383562154 -742 120.98232485916961
-736.7750193872245 -782 120.7072643448052
-736.7750193872245 -793 120.7072643448052
-738.4539383562154 -810 120.98232485916961
-736.7750193872245 -833 120.7072643448052
-740.1328573252063 -864 121.257385373534
-740.1328573252063 -934 121.257385373534
-738.4539383562154 -962 120.98232485916961
-738.4539383562154 -983 120.98232485916961
-740.1328573252063 -985 121.257385373534
-740.2631448921172 -31 109.36826924006412
-741.9461771998205 -199 109.61692450790869
-738.5801125844139 -293 109.11961397221954
-740.2631448921172 -320 109.36826924006412
-741.9461771998205 -326 109.61692450790869
-741.9461771998205 -354 109.61692450790869
-740.2631448921172 -524 109.36826924006412
-740.2631448921172 -533 109.36826924006412
-741.9461771998205 -632 109.61692450790869
-741.9461771998205 -639 109.61692450790869
-741.9461771998205 -658 109.61692450790869
-741.9461771998205 -688 109.61692450790869
-741.9461771998205 -696 109.61692450790869
-740.2631448921172 -715 109.36826924006412
-738.5801125844139 -769 109.11961397221954
-741.9461771998205 -853 109.61692450790869
-740.2631448921172 -921 109.36826924006412
-741.9461771998205 -933 109.61692450790869
-740.2631448921172 -944 109.36826924006412
-741.9461771998205 -969 109.61692450790869
-740.2631448921172 -1008 109.36826924006412
-740.2029721904345 -125 97.50503996767807
-743.5764329571896 -191 97.94941730639432
-743.5764329571896 -199 97.94941730639432
-743.5764329571896 -274 97.94941730639432
-743.5764329571896 -287 97.94941730639432
-743.5764329571896 -354 97.94941730639432
-741.8897025738121 -362 97.72722863703619
-741.8897025738121 -450 97.72722863703619
-740.2029721904345 -585 97.50503996767807
-740.2029721904345 -630 97.50503996767807
-741.8897025738121 -715 97.72722863703619
-740.2029721904345 -749 97.50503996767807
-741.8897025738121 -763 97.72722863703619
-740.2029721904345 -826 97.50503996767807
-741.8897025738121 -910 97.72722863703619
-743.5764329571896 -933 97.94941730639432
-743.5764329571896 -1002 97.94941730639432
-743.3332100725307 -31 86.062075302666
-743.3332100725307 -48 86.062075302666
-743.3332100725307 -181 86.062075302666
-745.0232223560995 -253 86.25774255180818
-745.0232223560995 -293 86.25774255180818
-743.3332100725307 -319 86.062075302666
-745.0232223560995 -494 86.25774255180818
-745.0232223560995 -529 86.25774255180818
-741.6431977889621 -601 85.86640805352381
-745.0232223560995 -606 86.25774255180818
-741.6431977889621 -630 85.86640805352381
-743.3332100725307 -638 86.062075302666
-743.3332100725307 -715 86.062075302666
-743.3332100725307 -742 86.062075302666
-745.0232223560995 -752 86.25774255180818
-741.6431977889621 -782 85.86640805352381
-741.6431977889621 -833 85.86640805352381
-743.3332100725307 -853 86.062075302666
-746.2861884229148 -199 74.54478498994902
-744.5933112243977 -255 74.37568743898868
-746.2861884229148 -326 74.54478498994902
-746.2861884229148 -441 74.54478498994902
-742.9004340258806 -670 74.20658988802833
-746.2861884229148 -688 74.54478498994902
-746.2861884229148 -703 74.54478498994902
-744.5933112243977 -728 74.37568743898868
-746.2861884229148 -874 74.54478498994902
-746.2861884229148 -934 74.54478498994902
-744.5933112243977 -1015 74.37568743898868
-747.3650195396566 -199 62.81343461783182
-745.6696951183087 -255 62.67094848734374
-747.3650195396566 -326 62.81343461783182
-747.3650195396566 -441 62.81343461783182
-743.9743706969609 -670 62.52846235685568
-747.3650195396566 -688 62.81343461783182
-747.3650195396566 -703 62.81343461783182
-745.6696951183087 -728 62.67094848734374
-747.3650195396566 -874 62.81343461783182
-747.3650195396566 -934 62.81343461783182
-745.6696951183087 -1015 62.67094848734374
-748.2594495208899 -199 51.06658597062026
-748.2594495208899 -253 51.06658597062026
-746.5620961726446 -297 50.9507464169251
-748.2594495208899 -326 51.06658597062026
-748.2594495208899 -334 51.06658597062026
-746.5620961726446 -399 50.9507464169251
-746.5620961726446 -440 50.9507464169251
-746.5620961726446 -450 50.9507464169251
-748.2594495208899 -553 51.06658597062026
-744.8647428243993 -606 50.83490686322993
-748.2594495208899 -622 51.06658597062026
-748.2594495208899 -703 51.06658597062026
-746.5620961726446 -715 50.9507464169251
-744.8647428243993 -743 50.83490686322993
-746.5620961726446 -754 50.9507464169251
-744.8647428243993 -830 50.83490686322993
-748.2594495208899 -865 51.06658597062026
-744.8647428243993 -880 50.83490686322993
-748.2594495208899 -974 51.06658597062026
-746.5620961726446 -1016 50.9507464169251
-748.9692576794005 -273 39.307137407446184
-748.9692576794005 -280 39.307137407446184
-748.9692576794005 -402 39.307137407446184
-747.2702942007983 -450 39.217973012220455
